# 3D point list with one line of data per point:
#   POINT3D_ID, X, Y, Z, R, G, B, ERROR, TRACK[] as (IMAGE_ID, POINT2D_IDX)
# Number of points: 363, mean track length: 5.9255741668105681
8826 0.51922158001907881 3.6435582961264594 5.7335022649074583 0 0 0 1.0974217564326856 6 6414 3 6728
2399 0.60210610943361609 1.596671013828274 6.3514033241745178 0 0 0 0.38116024614778832 7 8467 1 10564 11 7813
8825 0.43448920382469558 3.1840666539462696 5.6911417413493739 0 0 0 0.27528786481864304 5 1204 3 6430 9 5764
2398 0.60210610943361609 1.596671013828274 6.3514033241745178 0 0 0 0.38116024614778832 7 8466 1 10563 11 7812
8824 0.43448920382469558 3.1840666539462696 5.6911417413493739 0 0 0 0.27528786481864304 5 1203 3 6429 9 5763
2397 0.0048056214056303561 1.5958841725713389 6.3263694312474792 0 0 0 1.3566032997287623 7 8465 1 10100 2 8592 17 6579 10 8159 15 5719
8823 -0.64964960729854349 4.0661466097405583 8.3653068355625226 0 0 0 1.9381684168480029 1 8254 3 6422
2396 -1.8509286283042989 1.5993469888115719 6.2367162630162545 0 0 0 1.6436182962063359 7 8464 1 10098 2 8589
8822 0.60412423390119518 3.0786551200758003 5.7098846165117418 0 0 0 1.1399344229907986 1 8162 3 6366 9 5728 13 2342
2395 1.044129605035838 1.5836371021785194 6.3901732496540609 0 0 0 1.1394265355461746 7 8462 1 10558 4 5745 8 7485 6 8830 5 3313
8820 0.89915990086086217 3.0776503805931275 5.7515173091256608 0 0 0 0.51228238154008909 4 2222 3 6356 9 2982
8819 1.0999359042332382 2.8414928139014024 5.7583525436965681 0 0 0 0.066662044279495417 6 6015 3 6208
2392 0.45642742316646029 1.5396422737584798 6.408805655760327 0 0 0 0.59036189148025897 7 8447 1 10539 8 7438
8818 0.67777866803247167 2.7623788658751014 5.6924059043992381 0 0 0 0.2347711455217292 1 7893 3 6170 9 5547
2391 0.45800750334450069 1.5404307632356968 6.4099105498822997 0 0 0 1.0611224831765553 7 8446 1 10538 2 8580 8 7437 5 3337 3 8632 9 8126
8817 0.70122365365555017 2.7500675764587683 5.6988008678537501 0 0 0 0.6518079049235761 8 5230 3 6157 9 2671 13 2212
2390 -2.7682716599522768 1.5542090751399753 6.3343067367104169 0 0 0 1.2960623125482706 7 8444 1 10090 2 8568
8816 -2.6683217948931692 2.5898870917573551 5.2941083632013086 0 0 0 1.1826815694995985 6 5382 3 6137 9 2322
2389 0.93346993916850285 1.5170467695212442 6.4468536434904333 0 0 0 1.0013116959177193 7 8441 1 10089 13 5497 11 6845
8814 0.19673606824294679 2.6315312439231455 5.6350773696222092 0 0 0 0.70577390414374463 5 919 6 5736 3 6089
2387 -2.1643756180926377 1.5090590510122788 6.3912786845910281 0 0 0 0.57172643888029184 7 8436 1 10083
8813 -2.6884168530464194 2.4963024776145404 5.2923899189069923 0 0 0 1.2969687417219418 6 5358 3 6086 16 1509
2386 -2.2639277245004101 1.4914823135118342 6.4169811412620499 0 0 0 1.4997388232253488 7 8433 1 10080 8 6861 3 7592 10 8765 17 7878 15 5697 14 6400
8812 -2.8616461074925104 2.4750682767750143 5.2970780978844578 0 0 0 1.1005611802000639 6 5347 3 6077 9 7239
2385 -1.4885922460402636 1.4779032153786784 6.4171221791561432 0 0 0 1.638365954907995 1 10502 2 9109 8 6873 3 8665 10 8776 17 7168 9 8108
8811 0.64000487410485696 2.5727267103953575 5.704990911611163 0 0 0 0.94073708527634281 6 5796 3 6027 9 5454
8808 0.98615097431708365 2.5499823945798603 5.7663939656805665 0 0 0 1.0669419251473626 8 5142 3 5982 9 5449 12 2750 16 2049
2381 -1.983957745912454 1.3967592713960935 6.4601529638257258 0 0 0 0.84617734534712963 7 8422 1 10069 4 5692 8 6853 3 7552 15 4982
8807 -2.1861926840118486 2.3876315324268251 5.4771537889535171 0 0 0 0.86353014681051465 8 4753 3 5980 9 2202
8806 0.29619865924892369 2.4771063050080224 5.7044259286196048 0 0 0 0.47895632100436408 6 5691 3 5958 9 2362
2379 -0.13913133240587638 1.3586433776327773 6.5624264526666432 0 0 0 1.2626629270673952 7 8419 1 10065 2 8539 4 5690 8 6886 6 8701 5 4789 3 8603 10 8101 17 6538 15 4963 14 5534
8805 -0.095499364865874764 2.3600799731522351 5.7047875101179644 0 0 0 0.31637591302946505 6 5591 3 5887 9 2241
2378 -0.094777177557948969 1.3532311632620027 6.5653650406186239 0 0 0 1.2221493745553524 7 8418 1 10063 2 8541 4 5689 8 6888 6 8702 5 4787 3 8597 10 8102 17 6537 9 8066 12 6548 11 6278 13 4896 15 4962 14 5535 16 5683
8802 1.1000465282415461 2.3440300703952097 5.8841664460110028 0 0 0 1.2009847154633519 6 5769 3 5811 9 5298 14 2057
8801 -1.4392339025688157 2.1227111666089251 5.7690980806137846 0 0 0 0.92497763936554289 8 4668 3 5775 10 7341 12 6144 11 5874 13 4434 12 6619 15 4449 14 4681 16 3532
2374 -0.37573250120038737 1.2463522995624901 6.5657842203368162 0 0 0 1.3760391127360225 7 8412 1 10057 2 8532 4 5681 8 6858 3 8586 9 8046 13 4349 14 4575
8799 0.12172601941890603 2.1603351466940084 5.8569531130001975 0 0 0 0.80899755756706404 8 4802 3 5738 9 5170 13 3657 16 1662
2372 0.54461613130131403 1.1392940705764509 6.6074817154366059 0 0 0 1.3962110824547038 7 8402 1 10457 2 8528 4 5672 8 7332 5 4737 3 9309 17 6509 12 6532 11 6255 13 4870 15 4928 14 5528 16 5669
8798 0.78261317277574061 2.1991200795793482 5.9326481164527376 0 0 0 0.55318658437277113 6 5651 3 5731 9 5208
2371 0.54475855320167654 1.1394285699420246 6.6074939870606091 0 0 0 1.4144854659435733 7 8401 1 10456 2 8527 4 5673 8 7333 5 4736 3 9310 17 6508 12 6533 11 6256 13 4871 15 4929 16 5670
8796 -1.5328262841680715 1.3907085399566623 6.4999647078375133 0 0 0 0.18159611004520851 6 5286 3 5458
2369 -0.38535404811689045 1.1470201338527335 6.5702371777499593 0 0 0 1.1060612557711467 7 8399 1 10050 2 8522 4 6328 8 6849 6 8617 5 4763 3 8567 10 8064 17 6502 9 8028 12 6526 11 6252 13 4865 15 4330 14 4566 16 5630
8795 -0.34321484168907407 1.4991295884721501 6.4571312784383244 0 0 0 1.6057106668861059 8 4590 3 5451 9 4827
2368 0.50883077956764966 1.1453822190016794 6.6061687556248003 0 0 0 1.0951412444042232 2 8529 7 8403 4 5674 8 6859 6 8689 5 4740 3 8550 12 6530 11 6257 13 4872 14 5525
8794 -1.6757431322693619 0.84325344220820886 6.5293454025583797 0 0 0 1.1097542989324982 6 5126 3 5318 9 1220
2367 -2.1624078384566192 1.1504702887645171 6.4552960628419722 0 0 0 0.86766966269297685 7 8397 1 10047 4 5669 6 7382 13 4333
8793 -0.24129597646035125 1.0117084431312264 6.5822938053498463 0 0 0 0.95461960513748723 7 5582 3 5303 10 5091 17 4258 14 3257
2366 -1.7106635585092793 1.0740233691982994 6.4913890796405687 0 0 0 0.93521670518643152 7 8393 1 10046 4 5665 5 4795 17 6494 12 6515 13 4326 16 3192
8792 -0.04938167237876346 0.99946437505689945 6.600173035787579 0 0 0 1.7578103040485382 2 5644 3 5280 15 1212 14 3262
2365 -1.8797887210138298 1.0181949700136013 6.4913054490636943 0 0 0 1.124091371678787 7 8392 1 10044 2 8506 8 6194 6 7378 5 4784 3 5354 13 4316 14 3203
8791 -0.95036431822644452 0.82556213015049751 6.5819621479638011 0 0 0 1.0374449773912333 1 9193 3 5268 17 5635 5 492 9 4571 12 5966 11 5768 13 4298 15 4291 14 3202 16 3149
2364 -1.879895385983589 1.0178190414144952 6.4913687816629562 0 0 0 1.2704790555105487 7 8391 1 10043 2 8507 8 6193 6 7377 5 4785 3 5353 13 4317 16 948
8790 -0.3002382508342043 0.90753135092630288 6.6042118328036574 0 0 0 0.99957946470489945 5 485 3 5261 10 5055 9 4583
2363 -1.2337489627818772 0.98106282393021704 6.5388136918232886 0 0 0 1.0781226688245431 7 8388 1 10039 2 8504 4 5659 8 6828 6 8564 5 4762 3 8563 15 4923
8789 -1.763922112043423 0.23612356337789933 6.759137764957166 0 0 0 1.1304838844836052 6 5035 3 5157 9 4381 16 2925
2362 -1.2346612150264575 0.98014517612729579 6.5386748782437083 0 0 0 1.1929081062768321 7 8387 1 10038 2 8503 4 5658 8 6827 6 8563 5 4761 3 7438 3 8562 10 7039 9 4626 11 6238 13 4312 15 4922
8788 -0.2163260027043705 0.4406128937855221 6.7618603770464718 0 0 0 0.72040898370004369 8 6130 3 5120 9 4398
2361 0.81012498977422021 0.95584509465021905 6.6506898216029358 0 0 0 1.4134682392853131 7 8386 1 10443 4 5660 8 7317 6 8661 5 3228 3 9265 12 6518 11 6742 13 5373 15 4911 14 5503 16 6585
8787 0.95939210436346489 0.64874441907777225 6.7419904788415357 0 0 0 0.97844979296565882 6 5280 3 5112 9 4444 16 976 14 1246
2360 -2.7976156628141187 0.95741121071267188 6.4327702585437674 0 0 0 1.7366507724592477 7 8385 1 10035 10 8027 17 6467 12 6502
8786 -0.18668993838267559 0.32107849163659813 6.8163928426716662 0 0 0 1.6503550062444952 1 9115 3 5071 9 6646 13 5304
2359 0.91264220510761251 0.91868217582954814 6.6647104005663147 0 0 0 1.6496673995695565 7 8384 1 10031 2 7720 4 5656 6 8660 3 8512 10 5094 17 5662 9 7980 12 6516 11 6239 13 4849 15 4300 14 5499
8785 0.98791254142298834 0.49548657908544652 6.7971475280041354 0 0 0 1.2959584067583154 7 856 3 5062 14 3208 16 3118
2358 0.88772219890360315 0.89457183915174754 6.6680968134203846 0 0 0 1.5866142055953858 7 8382 1 10440 4 5654 10 7061 11 6736 16 5624
8780 -1.4309700225693225 -0.45801245401429808 6.9532043529479761 0 0 0 0.364219487835656 8 4229 3 4941 9 582 15 3116
2353 0.026559613143226014 0.85512069569124805 6.6296273169186311 0 0 0 1.8892194723987759 7 8376 1 10021 2 8493 5 3241 10 8042 17 6481 14 5477 16 5593
8779 -1.0950356267504209 -0.42394939544580945 6.996778896457668 0 0 0 0.68528845624166668 6 4939 3 4932 10 4618 16 325
2352 0.025491360665338452 0.85456295146094285 6.6287383893309135 0 0 0 1.8596081338387309 7 8375 1 10020 2 8492 10 8041 17 6480 13 5363 14 5476 16 5592
8777 -0.95904403347447387 -0.53752734417874226 6.9961307122983696 0 0 0 0.51139715651754958 1 6469 3 4888 10 373 11 5585
2350 -2.8240441959841642 0.88273952441058146 6.4638026823649515 0 0 0 1.476498424706767 7 8373 1 10025 8 6165
8776 0.26676275705887625 -0.29755318624901933 7.1626563990023477 0 0 0 0.38881943350463982 8 4333 3 4867 13 4188
2349 -0.97563604521868796 0.8634897452555188 6.5737812010665797 0 0 0 1.1935046806189844 7 8372 1 10023 2 8489 4 5650 6 7390 5 3273 3 7402 10 7023 12 6505 11 6231 13 4837 15 4907 9 6788 16 3155 14 4510
8775 0.40258388096499081 -0.33234230618540411 7.1735259178850068 0 0 0 0.76671405670623882 8 4322 3 4838 9 4147 16 2818
2348 -0.9755224591714251 0.8634178286719516 6.5738180615820765 0 0 0 1.2583105878833665 7 8371 1 10024 2 8490 4 5649 6 7391 5 3272 10 7024 12 6504 11 6230 13 4838 14 4511 16 3156
8774 -0.79143332565548785 -0.61599267580281258 7.0170293974063069 0 0 0 1.1412650958246213 8 4129 3 4836 9 4115 17 3784 16 2674
2347 -1.5613990938087601 0.81403091493054036 6.5486697066377122 0 0 0 1.1245840645094167 7 8370 1 10018 2 8485 4 5642 8 6815 6 8522 5 4750 3 7411 10 8023 17 6462 9 6785 11 6225 13 4831 15 4904
8773 0.24385394596939938 -0.40258644407589972 7.1579586743222938 0 0 0 0.71792811075226159 1 6529 3 4822 9 4129
2346 -1.6623160910738115 0.81400966795588958 6.5424687763548945 0 0 0 1.1372725570627495 7 8368 1 10017 2 8484 8 6178 6 7347 10 8020 17 6460 12 6499 11 6224 15 4903 14 4474
8771 -1.3432023469202923 -0.84009072449383604 6.9141555667887937 0 0 0 0.98562732057139224 1 8974 3 4801 15 4077
2344 0.8683067262820453 0.73849448955748476 6.715617492432882 0 0 0 1.9152016580509301 7 8364 1 10012 6 7453
8770 -1.1100321442677579 -0.78282776723782455 6.9570755576154966 0 0 0 1.862441437736144 3 4800 17 5344 10 6708 9 4078 16 2629
2343 -1.4525998131842397 0.71236422494206375 6.5825203027503623 0 0 0 1.1678482729307638 7 8360 1 10007 2 8476 4 5632 6 7336 3 7389 10 8004 17 6447 9 6759 12 6481 11 6217 13 4822 15 4890 14 4458
8768 -0.29036033649831716 -0.62650092892867015 7.0776621085433478 0 0 0 1.1496081260869602 1 6412 6 4941 3 4785
2341 -0.45539919998111744 0.69726065818142224 6.6452907382695745 0 0 0 1.4117929760023658 7 8358 1 10006 2 7690 8 6816 6 7384 3 7349 7 7685 17 5615 10 7003 9 6732 12 6490 11 6220 13 4819 15 4281 14 4500
8767 0.20854629564945665 -0.64488724219041504 7.1327199980307299 0 0 0 0.97160135503665246 8 4169 3 4732 9 4037 1 6396 12 4011 11 3618 7 155 13 2981 15 194
2340 -2.3273309620281384 0.69753110690207332 6.5307264292617129 0 0 0 0.94064548439326345 7 8355 1 10004 12 6935 11 6212
8766 0.21961886437123301 -0.43770800678950211 5.4789384871132043 0 0 0 0.038108433527327887 8 4085 3 4709
2339 0.094338004636400297 0.65851563128584623 6.687975142617792 0 0 0 1.3432677807695002 7 8354 2 8480 10 8024 17 6454 9 7948 12 6947 11 6723 13 5349 15 4885 14 5456 16 5568
8765 0.57397984287115122 -0.61802558015555675 7.1778646355663414 0 0 0 1.4212492730071151 1 6424 3 4703 9 4014 16 240
2338 -1.1796448843016429 0.62269578172839835 6.627272848167185 0 0 0 0.90123530995686207 7 8352 1 10417 6 8510 5 4703 12 6936 11 6712
8764 0.60093886446225298 -0.61963303429179795 7.1809912271681284 0 0 0 0.81278843988808169 7 285 8 4228 3 4702 11 3661
2337 -1.210454139813979 0.62060662487577078 6.6262382548793557 0 0 0 1.1846938267964553 7 8350 1 9999 2 8460 4 5625 10 8001 17 6431 11 6203 12 6475 13 4812 15 4882 14 4443 16 3065
8763 0.50789055452247567 -0.67283889006943942 7.1673446836037664 0 0 0 1.3211194901883936 1 6386 3 4685 9 3995 7 5182 14 2886 16 2655
2336 0.14843753142459781 0.58754293833547111 6.7155211643224506 0 0 0 1.5817678654956806 7 8348 1 9990 2 8469 4 5622 8 6808 6 8568 5 3185 10 8009 17 6441 9 7932 12 6942 11 6718 13 5340 14 6317 16 5553
8761 0.0083718732854621315 -0.86049172179186806 7.08314825879288 0 0 0 0.76542568783599396 1 6292 3 4651 11 5439
2334 0.061411123713608497 0.59210052578123651 6.7140062884582914 0 0 0 1.7032826234014697 7 8346 1 9991 2 8467 4 5620 6 8560 5 3191 3 8486 17 6439 9 7934 12 6939 11 6717 13 5341
8760 -0.39261730638709086 -0.96022541011105456 7.0298621193910193 0 0 0 1.554609548763209 1 6212 4 71 3 4650 13 2776 7 45 14 2696
2333 -1.0764935102551647 0.60518601506074754 6.6405032853777577 0 0 0 1.0095474984174266 7 8345 1 9996 4 5619 8 6800 6 7337 5 4701 12 6474 11 6200 10 6956 13 4811
8759 0.12080535639042718 -0.86391605370248792 7.1001805307504302 0 0 0 1.3755705747894078 1 6291 3 4637 11 5436 14 2819
2332 -0.40101206886983631 0.58729617862368988 6.6827301794833778 0 0 0 1.1622889703598134 7 8344 1 9988 4 5616 8 6804 6 7376 17 6433 9 6710 11 6709 15 4875 14 5438
8758 0.11879604558378905 -0.86323207993401263 7.1043705638851886 0 0 0 1.567486578907902 1 6290 3 4636 12 5721 11 5435 15 2901 14 2818
2331 0.50577389690562136 0.56923470275177801 6.7432965115174781 0 0 0 1.575449985607982 7 8343 1 9984 2 8470 4 5618 8 6810 6 8577 5 3167 17 6445 12 6944 11 6715 13 5335 15 4870 14 5452 16 5562
8757 -0.28525514202158708 -0.97258708627994239 7.0219332253499891 0 0 0 2.2764601929954091 2 5028 6 114 3 4625
2330 0.50577389690562136 0.56923470275177801 6.7432965115174781 0 0 0 1.575449985607982 7 8342 1 9983 2 8471 4 5617 8 6809 6 8576 5 3166 17 6444 12 6943 11 6716 13 5336 15 4869 14 5451 16 5561
8756 0.8565055458447548 -0.69000537141140861 7.1987337103957012 0 0 0 1.4424102783488546 1 6383 3 4624 9 3962 14 4289
2329 -2.8690965813343352 0.5487597538001836 6.5452884310617012 0 0 0 2.0425521732878487 7 8336 1 9982 4 4074 5 3283 17 7048 10 8632 10 7956 12 6909 11 6700 13 4805 2 8437 15 5588 16 2979 3 7398
8755 0.10137406012023577 -0.90777645221853309 7.1012737828246735 0 0 0 1.7277198366456552 1 6253 3 4616 9 3933 12 3831 11 5403 13 4083 16 2586
2328 -0.13447637734428275 0.41718150742377458 6.7676362635672218 0 0 0 1.3355176715683965 7 8329 1 9978 2 8442 4 4067 8 6791 6 7367 5 3164 3 8467 9 7905 11 6695 13 5318 15 5574 16 5532
8754 0.27227639952087057 -0.87148577675369232 7.1238015190123152 0 0 0 2.0237987326399987 7 5140 3 4613 9 3937
2327 -1.8822420362481376 0.42788225705105182 6.6543903324287905 0 0 0 1.5047326735194337 7 8326 1 10386 2 8986 4 5590 10 8633 17 7045 13 5323 15 5576 14 6245
8752 -0.049734916526849769 -0.99549348629036249 7.06933732155521 0 0 0 1.5745786384769884 8 4001 3 4598 11 5334
2325 -1.4921589658577377 0.40887112128562109 6.6852660437730087 0 0 0 1.2569576734770656 7 8324 1 9976 2 8424 4 5587 8 6765 6 8470 5 3206 3 9222 9 8755
8750 1.6380193733215227 -0.98154999703806012 8.1011411649562639 0 0 0 0.74978426052358382 8 182 16 34
2323 0.60937941628199987 0.35543333032632024 6.8386486813698504 0 0 0 1.6874465705358364 7 8322 1 9968 3 7245 9 6640 12 6456 15 4224 16 4487
8749 0.69868609570052842 3.8500021676188458 5.7824084780992226 0 0 0 1.1126829591903384 6 3948 8 3707 3 4252
2322 -0.076982190402706818 0.36491904684592552 6.792966953132864 0 0 0 1.3109597727753872 7 8321 1 9970 2 8429 4 4056 17 6403 12 6914 9 7897 16 5519
8748 1.1400696429162118 3.7398440204739716 5.8510759842874727 0 0 0 1.0822096448625016 6 3992 8 3692 3 4055
2321 -0.076635806927542446 0.3639435316027711 6.7926371405680648 0 0 0 1.292686549305148 7 8320 1 9969 2 8428 4 4055 8 6776 6 7360 3 8456 10 7982 17 6402 9 7896 12 6913 11 6690 13 5307 15 4858 14 5418 16 5518
8747 0.58845334687644102 3.6380118305394413 5.7491308252063629 0 0 0 0.90153220971330905 6 3696 8 3564 3 3923
2320 0.54658879162918084 0.3315070097631071 6.8484223114988048 0 0 0 1.6236644156442535 7 8316 1 9965 2 8434 4 4047 8 6785 6 7381 13 5306 15 4852
8746 0.92145087689801852 3.4837875472331468 5.7926841519279897 0 0 0 0.79180711891245947 8 3491 3 3702 9 3331
2319 0.54627280240685727 0.33142641641610038 6.8473121998603022 0 0 0 1.7553660770215112 7 8315 1 9964 2 8433 4 4046 8 6784 6 7380 3 8438 13 5305 15 4851 14 6289 16 5530
8745 0.24374445327107608 3.3988240059342272 5.6914115804246004 0 0 0 0.97268552104812245 6 6185 8 5534 3 3641 9 3189
2318 -1.012744899910079 0.35169813482540224 6.7397165035698334 0 0 0 1.0514730150389042 7 8314 1 10374 8 6764 9 7909 12 6903 13 5309 15 5564 14 5406 16 6371
8744 1.2112296906998732 3.4112939374806737 5.829183621035293 0 0 0 1.1878583790423223 6 3705 3 3615
8743 0.76574672775745478 3.3991845624660137 5.7584612773524384 0 0 0 0.69027897429330309 6 3503 8 3389 3 3603
8742 -2.2889009990295524 3.1953747421363823 5.419526347626463 0 0 0 0.75800475444776705 6 1734 8 2571 3 3333
2315 -0.067634980597718733 0.17857846320793996 6.8838415194506286 0 0 0 1.14109684149108 7 8304 1 9961 2 8409 4 4037 8 6752 6 8493 5 3129 3 8437 10 7952
8741 0.72808975386896013 3.1556243207220955 5.7308699029392862 0 0 0 0.51143006960609394 8 3121 3 3232 9 3034
2314 -0.068513859880539082 0.17747732010599415 6.8861508613218012 0 0 0 1.4490218801203225 7 8303 1 9960 2 8408 4 4038 8 6751 6 8494 5 3130 3 8436 10 7951 9 8706 15 5547
8740 1.0038571525277984 3.1618965170556876 5.7758470137513456 0 0 0 0.79889356423918334 6 3300 3 3225 9 3060
2313 0.62238757644691722 0.14750615219853933 6.9448107503759866 0 0 0 1.1836031539239056 7 8300 1 9955 4 4032 6 7362 12 6902 11 7500
8739 1.0595999151117028 2.9716563334734265 5.7677753858443968 0 0 0 0.83850439507816743 7 3039 3 2961 9 2913
2312 0.62254801177614105 0.14717957877080756 6.9409383903703255 0 0 0 1.5537837508896886 7 8299 1 9954 2 8410 4 4031 8 6757 5 3112 9 8700 12 6901 11 7499 15 5546 14 7090
8738 -2.6210984069194674 2.6602067379456522 5.3047424731140218 0 0 0 0.76482092445271099 6 5401 8 4870 3 2790
2311 0.076327355121221074 0.1348575510917466 6.92040366747257 0 0 0 1.0714605996346576 7 8297 1 9952 2 8400 8 6746 6 8497 5 3121 3 8423 9 7867 13 5297 16 5466
8737 1.0788680012875629 2.7407715985572372 5.7476347224546709 0 0 0 0.1505642920186821 6 2732 3 2722 9 2681
2310 0.075932991592585042 0.13332668182277299 6.9199869717517046 0 0 0 1.4544630151288147 7 8296 1 9953 2 8399 8 6747 5 3120 3 8424 9 7868 12 6897 10 6852 11 7495 13 5296 15 4822 14 5394 16 4391 16 5465
8736 0.54578269582646177 2.6589543574133216 5.6757504266247327 0 0 0 0.83296339070345082 6 2355 7 2842 3 2662 9 2584
2309 0.6320749465174762 0.11844569209053121 6.9543102516800905 0 0 0 1.5973302009544668 7 8295 1 10361 4 4019 6 7356 3 9173
8735 -2.1125879196605286 2.5275428723341498 5.3560255102864591 0 0 0 0.48072414254556173 6 1165 8 4837 3 2654
2308 0.6320749465174762 0.11844569209053121 6.9543102516800905 0 0 0 1.5973302009544668 7 8294 1 10360 4 4018 6 7355 3 9172
8734 1.0903957152415475 2.6417396276034997 5.7421928125353263 0 0 0 0.66324532933373925 1 3466 8 2615 3 2599 9 2596
2307 0.54186191813968543 0.11901549768036161 6.9501118884366049 0 0 0 1.5239265650528446 7 8293 1 10362 2 8973 8 7218 6 8516 3 9177 12 7759 11 7494 13 6048 14 7081 16 6341
8733 -0.28089104458044528 2.533811062887541 5.5910294559448257 0 0 0 0.70939888776334847 6 1726 3 2548 17 2612
2306 0.49282579992882564 0.1166836730185342 6.948888527562052 0 0 0 1.3715982358648569 7 8292 1 9951 8 6748 6 7339 3 8412 9 7860 12 6898 13 5293 14 6255 16 5474
8732 0.27166075590338307 2.5337081048871291 5.6689835441442424 0 0 0 0.68890111042132707 6 1988 3 2498 9 2437
2305 0.75380605388421362 0.10515447100693706 6.9801863541951326 0 0 0 1.2003083546892117 7 8291 1 10359 4 5575 8 7221 6 8524 5 3104 3 8406 10 7961 17 7040
8731 0.27161646381776389 2.5334784037581435 5.6691533109783299 0 0 0 0.63745700827733098 6 1987 8 2335 3 2497 9 2436
2304 -1.1434473693497693 -0.13332077550451502 7.0124863338848558 0 0 0 1.3304946027890943 7 8284 1 10350 2 8389 4 5570 8 6736 6 8431 5 4637 3 8422 10 7929 17 6370 15 5532 14 5363
8730 0.39606273449168999 2.5333830315119639 5.6872324748625687 0 0 0 0.67108262224200288 6 2041 3 2480 11 2540
8729 0.74010982006836901 2.5507180394199604 5.7238433454651076 0 0 0 0.43380527764348309 1 3306 3 2476 9 2494
2302 -1.976372979600572 -0.19278888017655499 6.9175422508181228 0 0 0 1.8453661143840252 7 8282 1 9935 2 8378 4 5558 8 6038 10 7905 9 4257 10 6771 15 4805
8728 1.1201570175487263 2.5564074716551524 5.7765763123276921 0 0 0 0.69425076537297115 8 2515 3 2452 9 2527 1 3308 13 2139
2301 -1.2963930324013464 -0.22899344450944276 6.9997212960964061 0 0 0 0.84721803653888728 7 8281 1 10341 2 8381 4 5557 6 8416 5 4630 3 8417 10 7913 9 6552 12 6881 11 6654 13 4735 15 4800 14 5353 16 4291
8727 -0.21310570502128515 2.465678568654472 5.6344369555963132 0 0 0 0.6570632352563931 6 1679 3 2436 12 2734 11 2469
2300 -1.8505446170118178 -0.32538567368673205 6.9184658618970269 0 0 0 1.3644400026891015 7 8276 1 9920 2 8370 4 5548 8 6718 6 7230 5 4627 3 7214 10 7884 17 6331 12 6869 11 6651 13 4733 15 4796 14 4308 16 2775
8725 0.7806468043557625 2.444311031150332 5.7835795665780543 0 0 0 0.90136218402047308 6 2144 3 2308 11 2443 13 2066
2298 -1.2931668874745574 -0.44551907107000527 6.9700336903913103 0 0 0 1.1025077134070924 7 8271 1 9918 2 8366 4 5544 3 7187 11 6648 13 4724 15 4790 14 4298
8724 0.95045779829100474 2.447875971389168 5.8071485674708638 0 0 0 0.41420998304924456 1 3062 8 2350 3 2298
2297 -1.2931668874745574 -0.44551907107000527 6.9700336903913103 0 0 0 1.1025077134070924 7 8270 1 9917 2 8365 4 5543 3 7188 11 6647 13 4723 15 4789 14 4299
8723 0.38522341272413563 2.3716061299964131 5.7685293334836203 0 0 0 0.62856082226165166 6 1828 8 2187 3 2241 9 2269
2296 -0.44658665772047795 -0.48475203604894046 7.0684903334936466 0 0 0 0.82589544508733204 7 8268 1 9916 2 8369 4 5542 8 6717 10 6767 12 6868 11 6644 15 4788 14 5341
8722 0.33567100448845011 2.3641439694211868 5.7646565583152647 0 0 0 1.0279281783604626 6 1796 3 2238 9 2258 11 2378
2295 -0.44658665772047795 -0.48475203604894046 7.0684903334936466 0 0 0 0.82589544508733204 7 8267 1 9915 2 8368 4 5541 8 6716 10 6766 12 6867 11 6643 15 4787 14 5340
8721 0.38025424229636895 2.3327790488691353 5.7919454027995014 0 0 0 0.55916639309041549 6 1765 3 2195 9 2231
2294 -1.0380118215730232 -0.48402830115840856 6.991767045012339 0 0 0 1.0382715941197498 7 8266 1 9913 2 8359 4 5539 8 6714 9 6501 11 6642 14 4294
8718 0.036041085671355035 2.2685013732413468 5.7793344320014857 0 0 0 0.51885848169935611 6 1596 3 2140 9 2140 14 1861
2291 -1.5494458181493018 -0.58570860491062593 6.9197706807136683 0 0 0 1.3470215858590113 7 8261 1 9909 2 8348 4 5526 8 6700 10 7870 9 4164 12 6400 13 4717 15 4778
8714 0.14547520424315619 2.1746217508940013 5.8504002097640848 0 0 0 0.72162767260496263 8 1830 3 2002 13 1816 11 2129
2287 -0.11748058157950957 -0.98687697304218092 7.0698123203648127 0 0 0 1.3555769522794148 7 8255 1 9890 4 5514 8 6692 6 7192 5 3014 10 6705 9 7768 12 6376 11 6620 13 5233 15 4754 14 5308 16 4166
8711 -0.36741359928383444 2.1124376814309311 5.8458083024900516 0 0 0 0.685270305830041 8 1681 3 1972 12 2300 11 2069 13 1738
2284 -1.5735712118204905 -0.91676947592923064 6.8864854403181441 0 0 0 1.5798870449992828 7 8252 1 9895 4 5512 8 6688 6 7169 5 4576 10 7847 9 6438 12 6848 11 6627 13 4706 17 6288
8710 0.588453020854247 2.1758611193375095 5.9155742612134778 0 0 0 0.5850899848122415 6 1695 3 1958 9 2062
2283 -1.3237826241745119 -0.96976322671212944 6.8991852238091464 0 0 0 1.8361663508836186 7 8251 1 9893 2 8332 4 5502 8 6684 5 4563 10 4377 9 6426 12 6846 11 6623 13 4702
8709 0.88343616224880805 2.169130103218877 5.9481536968224447 0 0 0 0.9564442640955898 8 1992 3 1897 9 2059
2282 -1.3237826241745119 -0.96976322671212944 6.8991852238091464 0 0 0 1.8361663508836186 7 8250 1 9892 2 8333 4 5501 8 6683 5 4562 10 4378 9 6425 12 6845 11 6622 13 4701
8708 0.88343616224880805 2.169130103218877 5.9481536968224447 0 0 0 0.9564442640955898 8 1991 3 1896 9 2058
2281 -1.4405493977742285 -0.96721537865586271 6.888474941709628 0 0 0 1.6045607464634297 7 8249 1 9891 4 5499 10 7845 12 6844 11 6624
8707 0.95609892205829894 2.0913181427038277 6.0064568340448758 0 0 0 0.7066870286878657 8 1881 3 1804 9 1966 11 2041 13 1785
2280 -1.9632311674186864 4.2978883579421829 6.0297548290435659 0 0 0 0.18009213640746558 7 8170 1 9833
8706 0.8536406174059219 2.0799167851668567 5.9970313477976811 0 0 0 0.54551985876433962 8 1835 3 1800 9 1930 13 1769
2279 -1.5633687247162187 4.2752343719998427 6.0614437840499003 0 0 0 0.27606550581487743 7 8156 1 9830
8705 -0.018882968864688824 1.9969507142131053 5.967863647625129 0 0 0 0.81236639254514909 6 1315 3 1783 9 1842
2278 -0.38321098825330879 4.2945433125929391 6.1656214166679133 0 0 0 0.85451987884606739 7 8149 1 9846 8 6615
8704 0.94571666381642305 2.0700915572031731 6.0141585722959086 0 0 0 0.54121269243622272 8 1843 3 1774 9 1917 13 1751
2277 -0.56457170096456177 4.2742251793322508 6.1147494693689719 0 0 0 0.20851016483602455 7 8148 1 9840
8703 0.37844177762678893 1.90745571085017 6.0630842593924985 0 0 0 0.95066431066229795 8 1559 3 1678 11 1860
8702 -2.8036796983922518 1.6553972050154631 6.1721991041810895 0 0 0 1.2520347876267524 6 883 3 1676 9 1593
8701 -2.849359711792796 1.2169822397714956 6.4138059532019458 0 0 0 1.8862722202377527 4 849 6 743 3 1478 9 1354 8 980 12 4617
8700 -2.8346299659556951 1.2165252457629521 6.4050416258841043 0 0 0 1.134797504454103 6 742 3 1477 9 1355
8699 -0.91240833957864664 1.3345011823660018 6.531965789278094 0 0 0 1.0463404764694144 6 991 3 1391 10 1581 17 1457
8698 -2.848455901948121 1.008626396641628 6.4300609127345201 0 0 0 2.0046080725035793 6 673 3 1359 11 1004
2271 -1.5447348883881287 3.8613497616108901 5.6345106806666534 0 0 0 0.93763062682985465 7 8061 1 9792
8697 -2.8216138575439724 0.94078575217548255 6.4398328239244114 0 0 0 1.2761270807631828 6 658 3 1319 9 1278
2270 -1.5696900138116114 3.8368908790994096 5.6296421465641755 0 0 0 1.2758070433011464 7 8059 1 9782 2 8230 4 5967 6 7821
8696 -1.2305463396420422 1.0686440320400543 6.5283384506916233 0 0 0 0.99563757367196071 6 860 3 1289 17 1279 10 1385
2269 -1.5693004050115587 3.8360508053705265 5.6264331141600064 0 0 0 1.2885863889360938 7 8058 1 9781 2 8229 4 5966 6 7820 3 6780
8695 1.0529204331785411 1.271672209337928 6.615636774137104 0 0 0 1.8435185430965373 1 1300 3 1235 16 1267
2268 -1.2319974917855243 3.828773679727858 5.6709737459363954 0 0 0 0.63367792376489751 7 8054 1 9780 5 3976
8694 -0.97052650456598732 0.87447345669686372 6.5738984257614819 0 0 0 0.51350594911642045 8 4504 3 1195 10 5021 15 3443
2267 -2.2184406151697864 3.7443697129679827 5.5046222543493322 0 0 0 1.25574153994833 7 8049 1 9759
8693 0.15952933659665983 1.0140044108107777 6.6099450265259447 0 0 0 0.71807648780336297 7 1103 3 1182 9 1244 11 1084 15 1226
2266 -2.2179723799315894 3.7416767914686266 5.5042662756665699 0 0 0 1.7624349737634886 7 8048 1 9758 2 8223
8691 -0.22018151615305304 0.85349262183958019 6.6200662536435759 0 0 0 1.0242546729387889 8 956 3 1132 9 1179 12 4545
2264 -1.9805718677032713 3.7387199339654509 5.5469304852698977 0 0 0 1.4215206126464479 7 8045 1 9756 2 8212 8 5467 6 2611
8690 1.0418789569171019 1.0257730391023536 6.6470909161407112 0 0 0 1.5241715025378459 7 1110 8 1065 3 1121
2263 -1.980212776931884 3.7390493959098734 5.5429748250108304 0 0 0 1.8877477361386299 7 8044 1 9755 2 8211 4 5038 8 5466 17 5195
8689 0.26571863271425561 0.88688503681435316 6.6424644868682012 0 0 0 1.1161631335481077 8 987 3 1110 11 1005 7 1031 13 1028
2262 -1.4181097416673827 3.7306749814024425 5.6310083249011802 0 0 0 1.331560300393535 7 8041 1 9754 2 8198 4 5961 8 5519 6 7804 5 3951
8688 -0.35044315534867782 0.78723064513212748 6.6327030849703821 0 0 0 0.76385643295078032 1 6815 3 1108 9 1156
2261 -1.4183390334572823 3.7299184248925528 5.6290141388499997 0 0 0 1.6244681312948104 7 8040 1 9753 2 8199 4 5962 8 5518 5 3952 6 6011 17 5169
8687 -0.35044315534867782 0.78723064513212748 6.6327030849703821 0 0 0 0.76385643295078032 1 6814 3 1107 9 1157
2260 0.23162447493995128 3.7496495752541734 5.6994637533802059 0 0 0 0.49692177556255646 7 8039 1 9777
8686 0.48697998320611297 0.91452584964816408 6.6447497758158418 0 0 0 0.43795657602468008 8 1013 3 1103 9 1192 12 1217
2259 0.67817204514969998 3.7276127293624501 5.7655769017753107 0 0 0 1.3166947447450736 7 8034 1 9773 4 5964 8 6594 6 8041 5 3745 3 8193 9 7666
8685 0.65427166816355109 0.92098020375759071 6.656452154665593 0 0 0 1.2520445531977127 2 1071 3 1088 9 1189
2258 0.67816662701903541 3.7272511812079712 5.7652934451138957 0 0 0 1.2691272858518787 7 8033 1 9772 4 5963 8 6593 6 8040 5 1594 5 3744 3 8192 9 7665
8684 0.68129125384031786 0.7429271200223303 6.6968807823934444 0 0 0 1.4952551190313759 6 957 3 998 13 971 14 1256 16 1005
8683 0.73318173569720635 0.67550500967604798 6.7263632384536551 0 0 0 1.5824644008198063 1 942 3 959 9 1035 14 1237 16 970
2256 -2.1553561050874213 3.5130343756755926 5.4944011040116889 0 0 0 1.4002579485421331 7 8021 1 9687
8682 0.9012313698878458 0.66192380939930906 6.7373504242001419 0 0 0 0.68616522086235288 7 936 3 928 14 1245
2255 -1.3206309359371631 3.5190194398863994 5.6030028121065083 0 0 0 1.0094735914578401 7 8020 1 9690 2 8170 4 5955 5 3829 10 6333 17 5120
8680 0.3571601309559792 0.51321981461134558 6.7564080583770929 0 0 0 1.1594350929944064 6 835 3 900 12 989 2 835 11 822 13 3351 15 969 16 839
2253 -1.9336565956608758 3.4208571365090932 5.5034297133006742 0 0 0 1.3286505037263405 7 8015 1 9667 2 8162
8679 -0.17348413182851846 0.39274090691430497 6.7790789899474309 0 0 0 0.90382023937259237 8 785 3 886 9 929 15 893
2252 -1.8899910831468396 3.4221654844129694 5.5148334850120788 0 0 0 1.4438376576196363 7 8014 1 9669 8 5320
8678 -0.53454364783214869 0.30914969925288305 6.8010698644342886 0 0 0 1.1145631522463131 1 6722 3 880 9 895
2251 -1.8874833730259104 3.4195670579803226 5.507844873913788 0 0 0 1.2110424669961062 7 8013 1 9670 2 8160 8 5321 5 3853 4 4853
8677 0.72655505360587891 0.37300657168686785 6.8372251508841613 0 0 0 0.66282939973711219 8 816 3 813 15 882
2250 -1.6737839666508207 3.4220927003076183 5.5479647483381926 0 0 0 1.2612890397046268 7 8012 1 9664
8675 0.86687363618130597 0.30797354773957286 6.8783030448472413 0 0 0 1.5881262431613588 1 743 3 769 9 830 11 4147 13 3319 14 3162 16 766
2248 -1.6699198853697517 3.3279945582615049 5.5203094341580146 0 0 0 1.3718185948661978 7 7997 1 9650 2 8136 4 5950 8 5299 4 4813 6 7724 5 3782 3 6526
8674 0.96849229425673067 0.3167886933657037 6.8866633244045667 0 0 0 0.68839090294335714 1 744 3 764 9 829 13 813 14 1141
2247 -1.8670943538573086 3.3129255914486615 5.4894417750394009 0 0 0 1.4044147448027271 7 7996 1 9636 2 8135 10 7651 17 5095 10 6262
8673 -1.1038665468359365 -0.14544995741441261 7.0257398432972984 0 0 0 0.67485069578940193 7 5374 3 752 9 744
2246 -1.0895233759485854 3.3059597686932563 5.6077617365811232 0 0 0 0.70285430410120275 7 7995 1 9633
8670 -0.86216024326748708 -0.2670501270320485 7.0403401418925036 0 0 0 0.90658189587099314 8 471 3 660 14 700
2243 -2.2061295049068752 3.2138421966733324 5.4453892482973369 0 0 0 1.2777781283217378 7 7987 1 9604 2 8119 8 5192
8668 -1.0159758656325308 -0.33657582981357298 7.0119480817966551 0 0 0 0.48411569841774921 2 434 3 632 11 3960 12 4170
2241 -2.1121654805812029 3.2134340850039775 5.4520121821059648 0 0 0 1.3394240931264445 7 7985 1 9606 5 3774
8667 -1.8029163597092486 -0.51501146556450672 6.9017816178272877 0 0 0 0.95960710014474737 2 5158 7 332 3 625 12 3937 1 309 11 3822 13 435 15 3075
2240 -1.3478677637657428 3.2038169652700161 5.5484205207551991 0 0 0 1.0114899936211885 7 7982 1 9600 4 4740 5 3724 10 6160
8666 -1.3168936886188283 -0.42648645608931846 6.969283864276802 0 0 0 1.0037531112416873 2 5235 3 613 10 423 17 385 12 4098 7 446 15 517
2239 -1.3478869530238689 3.2038714194447162 5.5493679360774051 0 0 0 0.82270648619278186 7 7981 1 9599 4 4739 8 5276 6 5779 5 3723 3 3324 10 6161
8664 -1.0202530571252242 -0.36748796038815712 7.0083534779727206 0 0 0 0.65900921672675217 4 388 3 606 10 4656 11 5632 13 3204 15 3149 1 6537
2237 -2.2879415316924732 3.1350518789649096 5.4245078702662788 0 0 0 1.5195151601565235 7 7973 1 9584 2 8094 5 3760 4 4680
8663 -0.89910452903894755 -0.34775793576771341 7.0238699667346243 0 0 0 0.70152063339996407 1 6546 3 597 10 584 17 524 9 609 13 3210 14 629
2236 -1.7351345970362124 3.1290175497136103 5.4851884228324774 0 0 0 1.2613674374843846 7 7970 1 9588 2 8082 5 3726 4 4696
8662 -0.85580323532460867 -0.34422857502420728 7.0324865219277628 0 0 0 0.86048129784500649 2 438 3 596 17 528
2235 -1.6436456677489975 3.1270828810468876 5.4920821677715921 0 0 0 1.3157868748814292 7 7969 1 9589 2 8079 4 4697 8 5202 5 3722
8661 -0.78044574788249255 -0.3488893796629326 7.0420037715257715 0 0 0 0.61590100881600252 1 6549 3 581 10 597 12 4176 13 3202 14 638
2234 -1.3973630533439729 3.1235984186752903 5.5245157964971989 0 0 0 0.85411700188701489 7 7968 1 9591 2 8075 8 5228 5 3703 4 4702 10 6116
8660 -0.46815088528482318 -0.29700450201812695 7.0890492735355375 0 0 0 0.61507360660632793 2 506 3 567 9 607
2233 -2.051469320878978 3.1109908450029589 5.4643168702698945 0 0 0 1.1179100650485847 7 7967 1 9567
8659 -0.3335512225181213 -0.27471361654716248 7.0997006239766014 0 0 0 0.82972368074232639 2 543 3 558 13 569 1 542 14 736
2232 -1.7080422915053133 3.1028296274442471 5.4865892703986381 0 0 0 0.98584542394563546 7 7966 1 9578 2 8074 6 7691 5 3715 4 4676 3 6383
8658 -0.68469397826940892 -0.3559988853923019 7.0555419952239609 0 0 0 0.76131835175147577 2 446 3 556 9 579
2231 -1.7344052127411616 3.0997836820164419 5.4765938176138143 0 0 0 1.1891445703941577 7 7965 1 9572 2 8073 5 3716
8657 -0.96092351704879186 -0.44329843865900692 7.0036038176290214 0 0 0 1.1626097078875786 2 350 3 532 12 4119 15 503
2230 -1.7344052127411616 3.0997836820164419 5.4765938176138143 0 0 0 1.1891445703941577 7 7964 1 9571 2 8072 5 3717
8656 -0.61519963242211473 -0.36773223041733061 7.067173469912432 0 0 0 0.41106984616471864 7 485 3 526 15 555
2229 -2.214167774250674 3.0896601213318156 5.4207940277426951 0 0 0 1.4417616784650933 7 7961 1 9562 10 7610 17 5050
8655 -0.61519963242211473 -0.36773223041733061 7.067173469912432 0 0 0 0.41106984616471864 7 484 3 525 15 554
2228 -1.142280982321747 3.0949611972288533 5.5622762807063673 0 0 0 0.6888593635473963 7 7959 1 9568 2 8067 8 5238 6 7712 5 3683 3 6374 10 6091 17 5007
8654 -1.0014898605102691 -0.47815754558401147 6.9967446276939302 0 0 0 0.63043455728257414 2 5220 3 497 10 424 12 4071 11 3857 13 3139 15 3107 14 499
2227 -2.1293277322744806 3.0295859369681488 5.4345810672623935 0 0 0 1.1407756589829379 7 7954 1 9552 4 4629
8653 -0.89728538821978387 -0.45782012522347421 7.0123872954513065 0 0 0 0.45638165293449645 1 6514 3 494 13 3148
2226 -1.4940739168346764 3.0246206439215992 5.511773925217577 0 0 0 0.80741184934596189 7 7950 1 9556
8651 -1.1104493741983499 -0.56029571014704171 6.97624650420485 0 0 0 2.1742697992158613 2 204 3 468 17 307 10 347 15 299
2224 0.73318749243738224 3.0746325991594703 5.7240453859262361 0 0 0 0.74513319034650205 7 7948 1 9569 2 6651 4 5945 8 6490 6 7841 5 1119 5 3594 3 8016 9 7465
8650 -0.25755698521091258 -0.37706229702283989 7.1059351272867852 0 0 0 0.72274110187496277 1 453 7 497 3 459
2223 -1.3884321306559639 3.0188942367592562 5.5116759571276326 0 0 0 0.93549095681938521 7 7947 1 9553 2 8053 8 5167 5 3677 4 4644
8648 0.15559629530515232 -0.31155966767246224 7.1507305325491837 0 0 0 0.7345508070952661 7 547 3 440 9 504 12 562 16 433 1 513
8647 -0.94570065284123639 -0.57760939998811922 6.9876851291762634 0 0 0 1.1506316171132012 2 199 8 168 3 423 10 353
2220 -1.6864706281163488 2.9960396953703872 5.4712049516674242 0 0 0 1.3371315283280107 7 7943 1 9542 2 8051 4 5938 5 3689 10 6062 17 5001
8646 -0.92487821224277877 -0.58026427825224747 6.9974107210467471 0 0 0 0.51541433257592439 1 205 3 417 13 255 15 275
2219 -1.023229897068062 2.9887602205398043 5.5528739120963682 0 0 0 0.5464576610457762 7 7940 1 9543 5 3641
8643 0.37035405345565048 -0.31900699920295106 7.1726563884118804 0 0 0 0.68699846348237315 7 546 3 392 9 459 16 436
2216 -2.0484896388675735 2.8514459641676497 5.4181467616321557 0 0 0 0.82156333440563534 7 7929 1 9515 4 4576
8641 0.56394485638544234 -0.30345038970823679 7.1881051082931045 0 0 0 0.90133153491204643 1 519 3 373 12 611 14 821
2214 -1.6846672611374609 2.8474035627606322 5.4487452863562993 0 0 0 0.77321387852591172 7 7927 1 9517 2 8027 5 3636
8640 -1.4952536180396314 -0.80195213731256187 6.9055481176372702 0 0 0 1.459995552307749 8 73 3 356 10 4417 17 3642 9 331 15 2927
2213 -2.2822584113941242 2.8390613334387869 5.3830767152126429 0 0 0 1.2217631996572316 7 7926 1 9511 2 8035 4 4558 8 5008 5 3678 5 5123 3 2931 10 7563 17 4974
8639 -0.4725910385075856 -0.57651178569517736 7.0574313285939834 0 0 0 0.61122874623339551 1 218 7 272 3 343 9 368 12 4018 11 3718 13 243 15 297 14 419
2212 -2.2822872476212828 2.8386782573759315 5.38097218243069 0 0 0 1.1485156551106086 7 7925 1 9510 2 8036 5 5124 10 7564 17 4975
8638 0.56629506030701382 -0.34283414553905045 7.1894667344196188 0 0 0 0.94202133271037347 7 539 8 523 3 339 9 407 14 782
2211 -2.1535286445348114 2.8415785517403127 5.4180644921303474 0 0 0 0.77259095512982845 7 7924 1 9513
8637 -0.40075540937925624 -0.60513290773294293 7.060319613919857 0 0 0 1.3470232940914508 7 187 8 189 3 305 17 347 2 233 9 344
2210 -2.1471451762930118 2.8376575674636437 5.399675905182411 0 0 0 1.1678179879740007 7 7923 1 9512 2 8034 4 4561 8 5032 5 3674 10 7562
8636 -1.3237217811501718 -0.82092545020571406 6.9234353483495186 0 0 0 1.3870659477151102 1 6319 3 302 10 116 8 65 17 114 9 298 11 3569 12 3772 13 2943 15 2899
2209 -2.1310829088988212 2.826418073162249 5.4023382001865388 0 0 0 0.85347789962617016 7 7919 1 9508 2 8029 4 5923 8 5027 6 5465 5 3670 5 5116
8634 -0.21270290343805595 -0.60622496179348584 7.0757624683062899 0 0 0 0.92190513789583661 2 248 3 277 9 314 14 406
2207 -2.014648606395776 2.8243360488635112 5.413533877412477 0 0 0 0.96422348753779386 7 7917 1 9502 2 8022
8633 -0.99540727172837984 -0.83157935280055284 6.9630627838323704 0 0 0 2.0836827261058022 1 94 3 256 10 155 17 151 15 126 14 180
2206 -2.047051533909042 2.8228232839915646 5.4075325810518695 0 0 0 1.2817598834249604 7 7916 1 9500 2 8024 4 5924 8 5037 5 5110 17 6063
8632 0.11224728496777771 -0.60590525674068685 7.121000150368519 0 0 0 0.75252842334849945 8 253 3 233 9 283 12 255 11 3686
2205 -2.0475591952982244 2.822528088428875 5.4101632210251438 0 0 0 0.99975680913948339 7 7915 1 9501 2 8025 4 5925 8 5038 5 5109
8631 0.18408302124921733 -0.61057685096814407 7.1292530183091039 0 0 0 1.0449635616925756 8 255 3 213 9 271 12 260
2204 -1.934956906618188 2.8206286164651893 5.4165612791180697 0 0 0 1.0622319518451138 7 7914 1 9504 2 8018 5 3647
8630 0.074840172227934973 -0.65569449002530256 7.1314245695521095 0 0 0 0.90676709322638172 6 323 3 198 9 252
2203 -1.9358731977072723 2.8224023181603721 5.4164546503529882 0 0 0 1.6202392254374702 7 7913 1 9503 2 8019 5 3648 10 5970 17 4953
8629 -0.82413439452182924 -0.86957345882085624 6.9856685981465789 0 0 0 1.4754608346724991 1 6269 7 5074 3 196 8 4024 12 3775 11 3541 13 2883 15 77 17 3665 14 139
2202 -1.8318667927870294 2.8231066898928079 5.4301785973109116 0 0 0 1.109346631021666 7 7912 1 9509 2 8015 4 4557 5 3640 10 5964 17 4944
8628 -1.1666754718016858 -0.97675743710971152 6.9205744903410107 0 0 0 2.1989944188189301 4 3 3 178 10 45 9 170 15 27
2201 -1.7870358538835187 2.8205366037531352 5.4382141658809715 0 0 0 0.75446385300760577 7 7911 1 9506 2 8012 4 5929
8627 -1.1639267727008393 -0.97410989590417629 6.9155681616308557 0 0 0 1.8822453345888404 4 2 3 177 10 46 9 169
2200 0.66082149805160506 2.8642539600337353 5.6961847662013607 0 0 0 0.65355452321130336 7 7909 1 9522 2 6551 4 5934 8 6463 6 7774 5 3566 3 7957 9 7404
8625 0.29910033434372396 -0.63494677463030036 7.1441681671973862 0 0 0 0.94592064653224617 1 151 3 166 9 235 11 3635 8 235 13 2989 14 441
2198 -1.8046350415508303 2.8046225882265858 5.444788071812714 0 0 0 0.61809379024966482 7 7905 1 9497
8624 0.28579594270052011 -0.64139089878379729 7.1442140807542138 0 0 0 1.3938689517224399 7 177 3 162 9 229 13 2978
2197 -2.0460579775392702 2.79796402446657 5.4050591310714475 0 0 0 1.1270015964999398 7 7904 1 9492 4 4533 2 8006 10 5949
8622 -0.7358650195928319 -0.943433109681872 6.9849215489799468 0 0 0 1.4466101160815874 1 6233 7 53 3 126 12 3728 11 3528 13 2811
2195 -2.1463846234513864 2.7919830074516065 5.3935474813013293 0 0 0 1.1257549547238492 7 7902 1 9490 2 8005 8 6380 3 6236 10 7550
8621 -0.78602148352178236 -0.96493524341125669 6.9789149274350626 0 0 0 1.8732304228791743 1 34 3 122 9 117 6 65 11 3506
2194 0.064047997295249112 2.7604223041044689 5.6188435801106609 0 0 0 1.0685996379996863 7 7900 1 9483 4 4551 8 6434 6 7726 5 1015 3 6192 9 5529
8620 0.58731746513252348 -0.63050581111068427 7.1770241628322315 0 0 0 1.2009566131018117 1 159 7 232 3 119 9 197 12 286 11 3651 13 2958 14 509 16 228
2193 -2.6720967561997848 2.6462527805437044 5.3074871132886257 0 0 0 1.7661575075302742 7 7898 1 9460 2 7988 8 4861 6 5396 5 3639 3 6179 10 7528 17 6045 9 2375
8619 0.63478994853606086 -0.63448660736227047 7.1808303917323988 0 0 0 1.0202113235159138 1 156 8 270 3 112 9 187 12 288 11 3647 13 2951 14 510
2192 -2.6305901955857296 2.6289364345406208 5.3097322796029252 0 0 0 0.98362398335492607 7 7896 1 9453 2 7985 4 4467
8617 0.73035441750261854 -0.66664386307103685 7.1882990094961761 0 0 0 1.2624859536137982 1 133 3 72 9 139 11 3610 13 2919 14 457 16 178
2190 -1.3978653985251754 2.6119446939156754 5.4455737741750827 0 0 0 0.63718343414372014 7 7891 1 9455 2 7975 4 5911 5 3588
8616 0.68950758250419653 -0.67986606776204195 7.1905009522780921 0 0 0 1.3377594317292161 1 131 3 68 9 134
2189 -1.3978653985251754 2.6119446939156754 5.4455737741750827 0 0 0 0.63718343414372014 7 7890 1 9456 2 7974 4 5910 5 3589
8615 -0.41456966870551842 -0.98709878480826063 7.0105856354297265 0 0 0 0.6834676033418513 7 16 8 19 3 55
8614 0.077513256367497743 -0.88722202002828565 7.1050485044276561 0 0 0 1.4000950025699541 8 111 3 50 13 84 14 233
2187 0.27235634550781523 2.6368392679259793 5.6405824906819246 0 0 0 0.7305251519191488 7 7888 1 10185 4 5915 8 7038
8613 -2.0050928966648343 3.8391995680708821 5.5513017617688503 0 0 0 2.3447635624629268 7 8063 1 9784 2 8251 5 4072 7 7199 4 5094 6 5948
2186 0.38257051256251678 2.6303929334969105 5.6565358461563884 0 0 0 0.94830196172491943 7 7887 1 9463 4 5914 8 6419 6 7717 3 7885 9 7327 14 3680 13 4525 16 3795
8612 -2.0051093576785317 3.8395732382897831 5.5492891642183064 0 0 0 2.0547436624872764 7 8062 1 9783 2 8252 5 4073 7 7198 4 5093
2185 0.382369922585658 2.630548456209485 5.6562872175353425 0 0 0 0.89770540257620146 7 7886 1 9462 4 5913 8 6418 6 7716 5 3547 3 7884 9 7326 16 3794
8611 -2.2130072665147886 2.5681808783129405 5.332919185088663 0 0 0 1.7968653707024163 5 8553 4 9235 6 11955 3 12014 8 10143
2184 -2.6683799932338039 2.5783194952888566 5.2966959954925725 0 0 0 1.5968550877206469 7 7885 1 9446 2 7978 4 4448 8 4815 5 3618 3 6128 10 5882 17 4907 12 2960 11 2501
8610 -1.6956903361105835 0.3015875337513253 6.8470217285939929 0 0 0 0.5423803831483629 5 8630 10 11697
2183 -2.713386791728762 2.5290424103782763 5.2812246257850308 0 0 0 0.851713134728038 7 7882 1 9429 2 7968 10 7493 17 6020
8609 -0.24636306917252471 0.31211619091357334 6.7194462143537104 0 0 0 1.4035821714763508 4 9304 5 8629
8608 -0.24636306917252471 0.31211619091357334 6.7194462143537104 0 0 0 1.4035821714763508 4 9303 5 8628
2181 -1.6435063885474097 2.5285967692842064 5.4123015165436508 0 0 0 0.46831044597896909 7 7878 1 9430 4 4437 8 4878 3 2631
8607 -3.1492978998754624 -1.528101749084128 6.9297356122096065 0 0 0 1.1373720049041609 2 12124 5 8529
2180 0.31120293931356385 2.5496002886692066 5.6670733132210387 0 0 0 0.86196936927340406 7 7877 1 9439 4 4477 8 6407 9 5431 14 3645 16 3776
8606 -2.2415224634484372 3.7889446867893994 5.4972065004036121 0 0 0 2.3677490059062167 2 11945 5 8272 10 11490 17 9463
8605 -2.2396894998132479 3.7437606240963097 5.4975841905745968 0 0 0 1.9759763014300644 2 10404 5 7028 10 9177 17 7576
2178 -2.6420979495841412 2.4627595572364833 5.3563356562208861 0 0 0 0.72983917497684714 7 7872 1 9409
8602 -0.070815111255917426 -0.99364160900938414 7.0712013095370674 0 0 0 1.7785860332757837 4 7546 7 10246 6 10656 1 12648 8 8690 5 7108 3 11410 10 10154 12 9279 11 9035 13 7680 15 7792 14 8246
2175 0.89490080691434781 2.3610778764739631 5.8479963052887491 0 0 0 0.82707159288483412 7 7859 1 10159 2 7925 8 7029 3 8815 10 5684 17 4731 9 8311 12 6169 11 5903 15 3778 14 4775 16 5013
8601 -0.070815111255917426 -0.99364160900938414 7.0712013095370674 0 0 0 1.7785860332757837 4 7545 7 10245 6 10655 1 12647 8 8689 5 7107 3 11409 10 10153 12 9278 11 9034 13 7679 15 7791 14 8245
2174 -2.7375354786551291 2.271514461802667 5.5526616131201081 0 0 0 0.98967171102509 7 7855 1 9373 8 4658
8600 -1.5780199604345753 2.9916512665449946 5.4855422356533419 0 0 0 1.2222148656600789 4 1935 6 1759 5 1384 7 6555 8 2481 10 3202
2173 -1.5761062128110421 2.2347421256663886 5.6683995260856568 0 0 0 0.80453725270267784 7 7852 1 9371 2 7907 4 4382 5 3551 10 7382 17 5918 12 6164
8599 -1.0340371090424021 0.60121095253361423 6.6426748760553558 0 0 0 1.4541539997477562 1 9993 6 7340 5 3227 7 7669 2 7657 17 6430 13 4810 15 4878 14 4444 16 4504
2172 -1.5761332266188282 2.2349967754282338 5.6669576446352918 0 0 0 0.77789308843660643 7 7851 1 9370 2 7906 4 4381 8 4717 5 3550 10 7381 17 5917 12 6163 11 5889 13 3651 15 4475 14 3452
8598 -1.6723695234978668 2.8089825727779925 5.4464834554679422 0 0 0 1.0785409322579056 2 6577 4 4550 5 1230 7 6446 1 7925 10 3047 17 2860
2171 -1.1973549027894932 2.1472407048366309 5.7539600760699967 0 0 0 1.0479359534148143 7 7844 1 9354 2 7893 4 4363 8 4704 3 2088 10 7350 17 5894 9 1990 12 6150 11 5884 13 3621 13 4444 15 4454 14 3453
8597 -1.6716646517848073 2.8341916694333285 5.4517150148460702 0 0 0 0.85558496714652854 2 6598 4 4572 5 1255 7 6473 1 7952 8 2317 10 5965 17 2878
2170 -1.1359617997723224 2.1416265368142287 5.7622940919087133 0 0 0 0.43150953541569753 7 7842 1 9353 14 3456
8596 -0.88651688474859491 3.7302444665500745 5.6764934305047579 0 0 0 1.0404120246262423 7 7096 2 7107 5 1943 4 2937 8 3370 6 3131 1 8633 10 3914 17 3351
2169 -2.689689235757653 2.0660383062897267 5.7341773939015157 0 0 0 1.6200815303429745 7 7834 1 9340 2 8652 4 1085 12 6613 15 5078
8594 -1.7770915979408577 0.20492731674453576 6.7678418728909442 0 0 0 1.0667709545119788 4 4033 6 7287 5 3187 7 7611 1 9097 8 6054 12 6419 11 6158 15 4834 10 6819
2167 -1.2592791329096586 2.0066557224593655 5.8709383134066 0 0 0 0.56995851619611715 7 7832 1 9338 2 7870 8 6320
8593 -0.093011620568373879 0.45448794991692931 6.7558452827989175 0 0 0 1.3718280930524465 7 8333 2 8448 5 3169 6 7371 10 7994 17 6421
2166 -2.7763051526170246 1.9871169579815742 5.8088800156851237 0 0 0 1.1135147117906594 7 7829 1 9331 2 7867 4 1053 5 936 17 5860 17 6652 14 3353
8592 -1.3205187681122281 2.6111682668845511 5.4549358957376164 0 0 0 0.93527262074421968 7 7889 1 9457 2 7973 5 3583 4 4488 8 4977 6 5482 10 5874 17 4886
2165 -2.7775729269786704 1.9865778565566647 5.813704576611828 0 0 0 0.87727364215942283 7 7828 1 9330 2 7866 5 935 14 3354
